# .PCD v0.7 - Point Cloud Data file format
VERSION 0.7
FIELDS x y z rgb
SIZE 4 4 4 4
TYPE F F F U
COUNT 1 1 1 1
WIDTH 328
HEIGHT 1
VIEWPOINT 0 0 0 1 0 0 0
POINTS 328
DATA ascii
7.5110645 39.578018 -3.7573991 10274327
-5.8164549 38.346584 -3.4634681 10274327
6.2358623 46.5266 -4.3660207 10274327
-5.2374907 56.073257 -4.1891837 10274327
7.0067225 41.263439 0.39400068 15268432
-10.26833 42.141682 -2.242919 15340794
-0.2521044 34.781544 0.5571993 9306614
-9.9405003 40.784004 -0.52091116 7367103
9.5126228 47.174538 -0.53756082 7367103
11.276814 42.444542 -0.28173646 7367103
-7.8525639 54.444546 -0.62023687 7367103
14.58744 54.888893 -5.1226411 11470476
5.1490545 53.282383 -3.6583149 10274327
-16.491739 58.0728 -0.51744628 15268432
8.8548059 54.250404 -0.73152566 7367103
-0.11473253 40.070992 0.56260794 9306614
6.8957324 46.683571 0.45212147 15268432
-3.2085764 56.902313 -0.47414368 12095926
-0.32351702 45.26136 0.56880313 9306614
-4.5909781 62.907608 -2.8711016 10274327
7.2515635 51.794762 0.47000355 15268432
6.3133674 70.89035 -3.5326543 10274327
-5.7857165 55.451473 0.36494491 15268432
-0.096240118 50.890934 0.5744043 9306614
11.170975 59.057781 -0.58032215 7367103
-7.8070464 63.02113 -0.67982906 7367103
-4.5827665 70.295044 -3.3750749 10274327
17.943619 74.953545 -0.14994651 15268432
5.763041 78.799797 -4.1492314 10274327
0.19472466 55.912182 0.5708093 9306614
-4.3583512 78.276794 -4.0562849 10274327
4.4925232 73.925491 -0.47453392 12095926
-12.374944 81.334999 -4.4044957 11470476
-12.068707 79.06321 -0.0097406805 15268432
0.34907192 61.515221 0.56107855 9306614
-5.5139675 68.099365 0.36824882 15268432
-9.4339657 68.537697 -0.7975418 7367103
-8.3849192 69.845085 0.5277276 9306614
12.566292 87.30751 -1.5611868 7367103
5.6681828 86.101501 -3.3550129 10274327
15.800572 79.69278 0.22475983 15268432
0.071922541 66.622536 0.56067032 9306614
-4.7492018 85.392128 -2.7112951 10274327
21.1441 90.609512 -1.8679631 7367103
-5.7531767 73.151802 0.42383423 15268432
18.065556 89.882072 -5.4572854 11470476
-8.2031822 76.468765 0.5127874 9306614
-0.19478889 71.693947 0.57666981 9306614
-13.196711 84.487198 0.070267737 15268432
-17.264574 92.374519 -0.84627187 7367103
5.6491227 97.657608 -3.5273798 10274327
-5.5255604 81.618843 0.34458643 15268432
-10.890685 90.633781 -0.19150375 7367103
-4.9115267 102.28222 -4.0117688 10274327
0.074007645 77.899033 0.55671823 9306614
-11.237766 89.07238 0.45902979 15268432
0.044688366 83.256821 0.58074051 9306614
-17.648193 108.36317 -0.22828193 15268432
25.5065 111.84843 -3.5106597 4273881
-0.047604322 88.903137 0.53856325 9306614
-4.5052009 108.84341 -3.9437017 10274327
26.045815 116.9993 -7.2142549 4273881
-0.026324743 94.299805 0.58100754 9306614
-20.96542 113.68259 -0.38142475 15268432
-4.7269411 117.34424 -3.7212434 10274327
25.158354 120.74002 -3.3782959 4273881
14.880698 121.30511 -0.40887114 5311780
-5.4201474 105.4259 0.34426549 15268432
0.10263171 100.43388 0.55498457 9306614
-8.3517103 109.25375 0.50033647 9306614
0.13665122 106.56584 0.54208565 9306614
-5.9188662 112.50578 0.363208 15268432
-0.19718561 133.87582 -1.4862815 7367103
7.9958615 134.77927 -1.5019964 7367103
0.1846481 111.80823 0.54770768 9306614
1.2255104 117.54605 0.56181711 9306614
27.815866 136.54527 -1.4059473 7367103
4.9749079 121.88634 0.54161423 9306614
21.536657 122.37687 -0.91606748 12095926
3.6753693 138.53651 -1.9826103 7367103
9.7731686 124.69672 0.65667987 9306614
15.42537 126.74449 0.57192242 9306614
38.207829 110.3566 -6.2414827 4273881
38.695038 116.88647 -0.2735084 5311780
20.620909 126.73858 0.55239075 9306614
47.701851 114.32908 -2.091949 7367103
26.253325 126.79285 0.58175498 9306614
33.967007 135.96019 -1.3165282 7367103
49.997665 109.16807 -2.2584007 7367103
40.573181 130.94902 -0.43588433 12095926
47.757065 117.71453 -0.14889716 5311780
56.394432 112.67092 -10.585255 11470476
31.791447 126.94418 0.54943645 9306614
39.601433 136.1954 -1.4340341 7367103
57.257416 152.12086 -9.2225256 15268432
37.19696 126.77562 0.58000761 9306614
44.73188 136.1012 -1.4992377 7367103
63.153343 153.63843 -13.174316 15268432
50.876202 136.23903 -2.1525803 7367103
65.200859 108.46923 -3.7453148 4273881
56.239475 110.56217 -5.9687362 11470476
42.510361 126.51004 0.56324786 9306614
62.944298 102.36953 -4.1794615 4273881
52.778053 117.02782 -0.23465247 5311780
48.1539 126.69488 0.57339108 9306614
73.851288 147.51135 -7.6259041 15268432
56.328537 136.89931 -1.39978 7367103
70.306412 108.12069 -4.3711891 4273881
57.919292 116.56612 -0.2116161 5311780
73.422432 112.99142 -3.19203 4273881
54.030346 126.65336 0.57446015 9306614
76.817055 150.02284 -11.466866 15268432
73.977974 118.56039 -0.29289827 5311780
83.697296 115.62399 -9.3198586 11470476
59.289822 126.68486 0.57008147 9306614
77.501793 109.65075 -3.5671685 4273881
64.913246 126.66525 0.55045342 9306614
93.217445 140.45177 -3.6631629 15268432
90.146965 106.09406 -1.8251206 7367103
84.610664 131.21404 -0.43734181 12095926
70.93013 126.6601 0.57430798 9306614
80.398148 117.23103 -0.20897618 5311780
86.755852 116.66759 -1.4642229 7367103
86.402817 113.23394 -5.3076038 11470476
95.911316 142.13918 -7.8154764 15268432
77.340179 126.64705 0.6278401 9306614
91.133804 118.25275 -0.12453098 5311780
92.448883 123.15804 -0.5279966 12095926
86.334854 116.51025 -0.25335878 5311780
83.379051 126.4565 0.58053505 9306614
98.568031 118.2961 -0.29522189 5311780
99.584465 142.2207 -3.6744483 15268432
90.542496 126.93752 0.58265817 9306614
115.47076 111.35493 -1.753456 12095926
97.102921 126.95809 0.55409908 9306614
105.27227 117.02529 -0.2347794 5311780
123.13081 137.07584 -13.638826 15268432
107.70434 116.91518 0.053428501 7367103
124.78442 147.60628 -14.553841 15268432
102.15234 126.82225 0.54046357 9306614
122.96892 113.00039 -0.42017326 5311780
128.32222 145.74121 -10.862496 15268432
120.60423 109.11539 -1.1856538 12095926
108.28492 126.85831 0.53620887 9306614
120.06691 117.15031 0.066029787 7367103
113.46897 126.83691 0.57144815 9306614
138.84634 143.8287 -5.2668548 15268432
132.86444 109.5332 0.63099855 9306614
142.35863 140.92683 -2.8372254 15268432
119.37575 125.79692 0.55445135 9306614
146.62177 143.71426 -3.1490335 15268432
129.53528 105.71699 0.68615508 9306614
123.79882 122.86483 0.52241027 9306614
140.29041 115.17868 0.36433399 15268432
127.47805 118.45167 0.59844691 9306614
151.27467 107.32954 -5.1216211 15268432
156.99722 105.49075 -5.3627553 15268432
142.41742 109.47943 0.45920831 15268432
128.09207 113.04041 0.5160597 9306614
116.34114 90.764374 -0.33912936 5311780
143.75595 102.97718 0.58322746 15268432
117.28062 96.891747 -0.24194179 5311780
105.6305 83.50219 -9.7567434 15268432
139.36412 83.946152 -4.8836246 11470476
115.93444 89.040588 -1.1250638 7367103
145.16331 80.144325 -0.61016303 7367103
127.66921 100.93889 0.57594597 9306614
138.56747 81.838135 -0.65669286 7367103
119.41241 85.91967 -0.26356617 5311780
127.88618 95.815865 0.58149719 9306614
136.8007 76.938812 -0.29616189 5311780
154.44347 67.828247 -6.1609788 4273881
101.96547 65.115997 -5.6771202 4273881
128.12994 90.033127 0.57604522 9306614
119.42973 63.020882 -4.0570583 15268432
119.76126 69.048592 -0.29160088 5311780
101.89314 60.329788 -4.0773268 4273881
128.26588 84.89743 0.57327467 9306614
154.82088 61.78167 -5.2188907 4273881
128.40536 78.919182 0.6054095 9306614
138.47971 71.342896 -0.13576618 5311780
128.5468 73.594818 0.57490289 9306614
118.4538 63.232689 -0.20299308 5311780
139.24818 50.592117 -5.2987614 11470476
119.24715 50.784954 -0.9772259 7367103
144.38072 47.717133 -0.93367481 7367103
136.74852 51.901371 -0.29308072 5311780
132.53584 54.551678 -0.45435071 12095926
128.67094 67.413002 0.57041144 9306614
118.18948 57.673328 -0.19912541 5311780
149.14243 45.76746 -0.96378225 7367103
154.53793 38.056328 -4.9378166 4273881
128.82616 60.875702 0.57335895 9306614
117.47919 52.535698 -0.1926668 5311780
138.5843 48.744659 -1.5551348 7367103
147.3246 36.511772 -5.7310572 4273881
124.38537 45.560867 -0.40079218 12095926
117.70841 45.117691 -0.78948998 7367103
108.89084 30.814419 -6.4582429 15268432
128.67131 55.291962 0.5714705 9306614
116.6972 28.776381 -3.6375349 4273881
136.95995 38.704514 -0.35902926 5311780
151.32968 30.491301 -5.1987629 4273881
128.74335 49.869804 0.58591825 9306614
156.0202 24.119045 -4.4987693 4273881
116.85717 39.067871 -1.6312985 7367103
117.78313 23.588858 -4.5403643 4273881
137.86275 31.312313 -0.47935322 12095926
119.73304 26.252697 -0.84870136 7367103
112.27293 26.038656 -4.523015 4273881
129.27637 43.515854 0.57259011 9306614
117.68955 32.798206 -1.1624016 7367103
156.44255 18.40484 -4.0500293 4273881
139.17972 14.622166 -9.4091749 11470476
139.07419 33.754513 -0.18431152 5311780
119.74733 13.809896 -3.854516 10274327
129.07921 36.979073 0.5728007 9306614
136.74959 18.264463 -0.29650134 5311780
144.29243 11.470747 -0.99873799 7367103
115.19978 18.807344 -5.3934207 4273881
129.07692 30.24506 0.59931004 9306614
118.33243 19.546854 -0.777839 7367103
149.87654 8.4746342 -0.86770856 7367103
129.12683 24.929895 0.55420762 9306614
138.49994 11.8925 -1.5777937 7367103
140.97905 12.568724 -4.8534789 11470476
118.04771 12.290889 -0.6904757 7367103
153.18542 -3.4159946 -6.1329737 4273881
129.15332 19.333721 0.58021319 9306614
137.9698 11.074025 -0.22487579 5311780
118.13963 7.0851126 -4.9170399 10274327
129.14297 13.617761 0.59669948 9306614
136.72482 -3.7788601 -0.21596368 5311780
117.73656 5.5091209 -0.18854466 7367103
153.88451 -10.145793 -5.1125913 4273881
138.39009 4.5478506 -0.20832139 5311780
129.04942 7.7721829 0.57496291 9306614
129.03255 1.8550458 0.52480239 9306614
119.34449 -15.917348 -0.36201215 7367103
107.24385 -23.701925 -1.8411975 13848784
139.40167 -24.166397 -0.99565774 7367103
106.40761 -28.251467 -4.1947517 13848784
129.14943 -4.0701623 0.56590557 9306614
138.31863 -10.637383 -0.22584032 5311780
138.79733 -27.98695 -7.7674394 11470476
142.29214 -19.980576 -0.29375169 12095926
129.13708 -10.199193 0.5724234 9306614
118.40145 -21.743591 -0.27068487 7367103
132.59343 -26.482351 -0.45961288 12095926
106.80587 -33.35638 -6.5403056 13848784
104.39871 -37.999596 -8.4466629 13848784
129.12364 -16.374912 0.56493706 9306614
119.28999 -33.867657 -0.27554435 5311780
117.93984 -28.202082 -0.61689454 7367103
124.41059 -34.941277 -0.40965757 12095926
110.8854 -46.763687 -4.8229156 15268432
129.06525 -22.618933 0.56344181 9306614
138.34419 -29.654905 -1.0136243 7367103
107.83893 -49.583221 -11.9539 15268432
119.50893 -40.131733 -0.7863518 7367103
128.69199 -28.934126 0.58185619 9306614
138.54718 -38.776398 -1.1060272 7367103
110.20437 -59.880875 -7.4817171 15268432
112.53394 -51.932114 -4.802331 15268432
129.39346 -35.625584 0.56137478 9306614
119.75015 -52.074772 -0.75306171 7367103
139.8199 -56.465145 -0.19506243 7367103
139.03275 -45.225426 -0.072100088 7367103
129.07629 -42.467422 0.57406968 9306614
142.53204 -64.417458 -1.2421446 7367103
132.59145 -59.375824 -0.59983069 12095926
107.70767 -63.524231 -10.160857 15268432
151.47556 -72.693695 -5.170239 4273881
129.05527 -49.213017 0.57797182 9306614
118.5537 -60.188366 -0.58602977 7367103
122.58955 -70.904114 -3.0086236 15268432
124.40628 -67.836296 -0.43004355 12095926
128.99538 -55.950115 0.5558778 9306614
118.47506 -66.403915 -0.65479445 7367103
150.91525 -79.083916 -6.2747107 4273881
103.67359 -84.10968 -6.1370749 13848784
128.70633 -62.778458 0.58499652 9306614
117.97084 -71.648697 -0.67055249 7367103
102.79321 -89.401642 -7.6573129 13848784
122.38297 -89.671722 -4.2763453 15268432
129.3237 -70.053452 0.56860834 9306614
119.54694 -86.843636 -0.29840037 5311780
118.89843 -80.531303 -0.84767365 7367103
137.26564 -90.446014 -0.81493324 7367103
103.67824 -96.782974 -4.7673507 13848784
140.53281 -100.49138 -8.1030388 11470476
129.03198 -77.313126 0.56707639 9306614
132.59274 -91.959717 -0.28568429 12095926
103.18646 -103.32709 -3.7001173 13848784
119.53144 -100.18864 -0.2023913 5311780
129.0432 -84.59063 0.58168191 9306614
117.73454 -93.207794 -0.17987517 5311780
106.55299 -111.0048 -4.2802806 4273881
124.41445 -100.30902 -0.42971489 12095926
138.57059 -95.399063 -0.93532634 7367103
150.51625 -114.79504 -5.7287707 4273881
112.66053 -115.85604 -13.005274 15268432
121.74447 -115.42902 -13.184551 15268432
128.6973 -91.703735 0.59469414 9306614
107.01368 -116.29195 -4.5734687 4273881
137.66977 -105.71713 -1.1989443 7367103
128.27983 -122.99416 -13.513175 15268432
119.71613 -119.79569 -10.239159 15268432
116.92374 -121.93306 -5.7822685 15268432
129.36923 -99.276672 0.59560585 9306614
138.34033 -121.31824 -0.83035773 7367103
150.82251 -122.62875 -5.8951664 4273881
109.35182 -120.75393 -9.9450378 15268432
118.71758 -115.54636 -0.28162894 5311780
142.51045 -118.82283 -0.26658082 12095926
128.70688 -106.96859 0.57416528 9306614
126.30681 -126.4175 -8.7174501 15268432
118.67406 -126.99699 -9.5710316 15268432
128.131 -114.37012 0.58671498 9306614
136.21622 -127.01868 -0.79211116 7367103
123.48069 -137.3226 -0.75073785 7367103
116.93599 -121.34597 -0.24036737 5311780
117.88707 -122.16333 0.1246177 7367103
126.35047 -121.57406 0.55736721 9306614
133.80579 -134.05902 -0.86423779 7367103
113.28581 -145.90172 -3.174252 4273881
136.2346 -150.14539 -4.5677214 13848784
142.84753 -155.46587 -4.9110889 13848784
