# .PCD v0.7 - Point Cloud Data file format
VERSION 0.7
FIELDS x y z rgb
SIZE 4 4 4 4
TYPE F F F U
COUNT 1 1 1 1
WIDTH 318
HEIGHT 1
VIEWPOINT 0 0 0 1 0 0 0
POINTS 318
DATA ascii
11.726336 -41.560379 -7.0629029 11470476
0.18527673 -24.946955 0.57396328 9306614
-10.296599 -35.053749 -1.0756836 7367103
19.290602 -44.210293 -0.92895132 7367103
9.8230581 -41.35405 -0.87304026 7367103
0.33218139 -31.177803 0.57164669 9306614
-10.684877 -40.297707 -1.0739875 7367103
0.46539626 -36.456612 0.5683229 9306614
22.866203 -60.93182 -1.1464227 11470476
-24.240353 -62.270554 -10.110454 12095926
-8.1939545 -57.180374 -0.61196667 7367103
0.57844007 -41.78791 0.57041478 9306614
22.791477 -66.237305 -1.1670988 11470476
-3.5987444 -57.302788 -0.42665169 12095926
12.923663 -59.800442 0.5090723 15268432
0.67649102 -46.907101 0.5481199 9306614
14.935601 -71.340179 -6.5705361 11470476
-13.861937 -73.736946 -9.0469332 11470476
14.311985 -65.368088 0.56232411 15268432
0.84566838 -53.002987 0.54965037 9306614
22.938417 -75.690826 -0.22259203 5311780
-10.219865 -62.339752 -0.78745013 7367103
24.022831 -80.773514 -3.6168616 4273881
15.414737 -79.869522 -4.5938854 4273881
1.0827239 -58.409782 0.55791515 9306614
11.699896 -72.113403 -0.26779392 5311780
-8.4675989 -72.768951 -0.75356156 7367103
13.284777 -70.967628 0.65977997 15268432
19.618719 -83.159912 -4.7682405 4273881
0.81727356 -63.515495 0.52423912 9306614
0.88505328 -68.719086 0.57355541 9306614
-8.2198114 -88.580399 -0.62650239 7367103
-10.586653 -77.410896 -0.60880589 7367103
19.573982 -88.463104 -4.8486004 4273881
22.555691 -95.594666 -4.0524335 4273881
10.6866 -89.790642 -1.3533796 15340794
0.86399955 -74.542015 0.57445735 9306614
15.276617 -91.016624 0.65397531 15268432
24.741943 -100.6189 -3.1450021 4273881
0.86789495 -80.472008 0.53913456 9306614
13.459011 -105.75695 -2.6936202 4273881
-9.6614046 -93.585754 -0.64368373 7367103
17.95105 -108.14836 -3.0187707 4273881
0.8695932 -86.232735 0.55224836 9306614
8.6126356 -106.9311 -0.25101528 5311780
-10.087755 -99.113792 -0.61853242 7367103
-8.6622963 -105.73827 -0.70853788 7367103
0.84709108 -91.971252 0.56508166 9306614
-8.0099564 -111.35736 -0.33240658 5311780
4.4497561 -107.59635 -0.44924241 12095926
-10.690995 -119.24081 -7.9997878 11470476
0.82300657 -98.194862 0.56970525 9306614
13.682085 -111.6562 -4.0653634 4273881
0.71318215 -104.2179 0.53738558 9306614
14.373726 -116.79724 -4.4359074 4273881
10.628065 -111.78198 -0.26400706 5311780
-9.5952539 -116.70698 -0.23344605 5311780
15.48712 -121.97236 -5.2227278 4273881
0.3386324 -109.8534 0.52481568 9306614
-0.028420925 -135.83823 -1.2970064 7367103
9.8183346 -120.63713 -0.3239193 5311780
7.1049094 -136.58633 -1.4654197 7367103
0.5357421 -115.47457 0.5638088 9306614
-10.273401 -122.04794 -0.20991352 5311780
15.655735 -132.51703 0.57785052 9306614
0.96001083 -120.84122 0.55905777 9306614
21.593258 -142.42432 -0.3899895 12095926
-15.678906 -148.75613 -3.3627224 4273881
30.786154 -140.24345 -1.3340108 7367103
3.5843697 -125.2968 0.55150896 9306614
-0.9129324 -152.42731 -11.202448 15268432
30.75436 -133.59253 -0.25880909 12095926
18.167343 -138.45763 -0.37768304 12095926
-2.7777882 -157.86195 -11.12165 15268432
27.453733 -136.10559 -1.4155303 7367103
25.887127 -131.55156 -0.43563005 12095926
8.5683966 -127.86015 0.56549305 9306614
18.065672 -146.1395 -1.0206053 12095926
25.884432 -141.86198 -1.1184462 7367103
19.733238 -151.58604 -1.2872857 12095926
37.764301 -116.23288 -0.21187258 5311780
44.712624 -114.82191 -1.4382873 7367103
28.128746 -147.34836 -1.3505477 7367103
32.358475 -116.92171 -0.19726811 5311780
18.135681 -128.09297 0.5769574 9306614
37.620861 -136.96194 -1.7670662 7367103
23.151508 -127.87743 0.56267703 9306614
50.944706 -107.36683 -4.7360153 4273881
48.849037 -152.2995 -6.7101626 4273881
29.185295 -128.47337 0.6066277 9306614
40.03265 -117.15596 -1.2379404 7367103
53.685341 -155.0023 -15.297702 15268432
42.555363 -119.00175 -0.27151209 5311780
56.230644 -140.25195 -0.86271214 7367103
34.319115 -128.66109 0.57909971 9306614
55.555298 -109.65376 -4.8057761 4273881
42.530602 -139.90645 -1.4604104 7367103
58.359985 -145.93777 -0.91074979 7367103
39.712822 -128.79893 0.57746154 9306614
61.330135 -107.06929 -5.0771084 4273881
61.468002 -119.81599 -0.26080054 5311780
45.166969 -128.87848 0.53229898 9306614
70.639 -117.67256 -7.8362107 11470476
70.544891 -137.7748 -3.5869391 15340794
60.519051 -124.89964 -0.48990896 12095926
50.610821 -128.98112 0.55901915 9306614
66.515327 -119.31683 -0.27766433 5311780
74.088951 -144.86444 -0.38204947 12095926
55.798935 -129.11778 0.55982149 9306614
77.474892 -137.49933 -0.27302915 5311780
60.807674 -129.396 0.54748559 9306614
86.71199 -116.26227 -5.0257106 15268432
73.010406 -117.87216 -0.39972481 5311780
66.108757 -128.86949 0.5519982 9306614
90.28994 -142.88187 -1.5554587 7367103
93.276291 -106.85061 -0.25489742 5311780
94.98539 -115.34113 -3.4825716 4273881
71.78833 -128.79099 0.5581969 9306614
82.320724 -138.76288 -0.2485965 5311780
90.064804 -116.44101 -0.2735438 5311780
98.998589 -102.10852 -2.770623 4273881
77.22583 -128.961 0.56129676 9306614
98.324959 -111.40864 -4.0785446 4273881
88.007744 -138.75977 -0.24139337 5311780
102.00871 -116.90555 -4.2271056 4273881
91.537811 -119.28544 0.02396353 7367103
98.433525 -120.20708 -0.066497214 7367103
83.139862 -129.15697 0.5708304 9306614
93.111336 -138.69327 -0.21563032 5311780
109.61279 -125.59083 -14.368615 15268432
111.10628 -116.35291 -14.613031 15268432
103.66065 -112.10694 -4.6505489 4273881
88.242035 -129.11575 0.57070529 9306614
113.29488 -151.32677 -4.4819646 4273881
111.83218 -109.59013 -4.0604291 4273881
98.578018 -138.84969 -0.22940096 5311780
115.51849 -117.87432 -12.188702 15268432
118.43912 -107.37342 -12.552105 15268432
94.036499 -129.10893 0.55723333 9306614
119.63326 -115.55038 -14.558605 15268432
103.88669 -118.887 -0.12975152 7367103
104.22121 -139.13509 -0.24868377 5311780
118.65356 -151.28297 -5.782445 4273881
111.83331 -116.0156 -0.80263579 12095926
121.37608 -102.44263 -14.25669 15268432
121.20219 -122.79376 -10.074627 15268432
121.18904 -139.88663 -0.90220892 7367103
116.62576 -107.22258 -3.6161332 4273881
118.21751 -117.52771 -7.3713923 15268432
99.314278 -129.12144 0.55619305 9306614
123.52687 -112.13755 -11.404665 15268432
123.24297 -152.00558 -3.4673767 4273881
125.62552 -118.87247 -8.8829136 15268432
105.2661 -129.12558 0.55931753 9306614
125.23302 -107.65311 -0.24819916 5311780
132.08116 -130.86894 -0.88810611 7367103
110.74374 -129.12733 0.56961203 9306614
127.29156 -123.72646 -9.2875481 15268432
119.78786 -119.26697 0.14385366 7367103
121.13341 -116.26019 -2.7479553 15268432
131.96368 -114.0006 0.56262016 9306614
116.04855 -128.99261 0.55716527 9306614
138.47292 -147.7561 -4.7001109 13848784
126.49824 -137.93748 -0.92470515 7367103
145.62112 -151.24675 -8.2005835 13848784
148.63028 -147.74417 -5.0355549 13848784
121.58544 -127.80731 0.55905712 9306614
152.16977 -148.78893 -8.8483191 13848784
131.97963 -136.34242 -0.95442617 7367103
139.14999 -99.867928 -0.98197275 7367103
145.61774 -116.32836 -4.4895644 4273881
135.91245 -126.68257 -0.94309604 7367103
138.20561 -115.44315 -0.42468956 12095926
125.66416 -123.9168 0.55175573 9306614
135.12009 -102.97401 -0.83956701 7367103
150.19818 -113.6678 -4.5776863 4273881
137.55244 -121.51131 -0.90290856 7367103
122.40636 -96.25325 -0.41820747 12095926
127.62348 -119.13237 0.56114668 9306614
138.16353 -97.437172 -8.7512321 11470476
151.26392 -108.53258 -4.5299082 4273881
116.45797 -89.858246 -0.29495019 5311780
122.89985 -101.73858 -0.43955839 12095926
116.75568 -96.521484 -0.44591123 5311780
149.89142 -97.46991 -0.9335559 7367103
151.22548 -102.86989 -3.4481106 4273881
120.74169 -88.623886 -4.3937411 15268432
102.89803 -86.902344 -4.4082146 13848784
126.93436 -113.85127 0.56927174 9306614
117.42699 -102.23167 -0.4127295 5311780
155.5721 -94.049271 -0.97644424 7367103
141.50731 -93.544495 -10.313112 11470476
126.99854 -108.81639 0.57144684 9306614
132.6042 -95.123596 -0.41380435 12095926
104.52548 -81.76313 -4.810935 13848784
145.00774 -94.122833 -6.6165252 11470476
103.57325 -76.886261 -6.9242554 13848784
128.01959 -103.43691 0.58737761 9306614
138.77032 -94.377792 -0.90079457 7367103
103.26503 -71.088272 -6.338717 13848784
128.14308 -98.267464 0.54921991 9306614
118.9596 -81.533066 -0.29608846 5311780
119.36911 -75.897766 -0.69767642 7367103
150.71974 -68.564728 -4.6713243 4273881
127.66038 -92.436218 0.5767833 9306614
133.54718 -90.065811 -0.16758294 12095926
122.78322 -70.848343 -2.8581758 15268432
127.82663 -87.278267 0.57540464 9306614
150.94525 -62.845093 -4.640316 4273881
139.85063 -60.867607 -1.1064265 7367103
124.50833 -70.626694 -0.45760465 12095926
127.88294 -81.880913 0.61078322 9306614
102.38787 -56.343887 -4.9633355 4273881
144.62755 -59.050728 -0.86957443 7367103
110.27654 -54.654083 -4.9204755 15268432
118.78069 -70.227432 -0.60372615 7367103
127.91808 -76.246948 0.57455748 9306614
132.55829 -62.159508 -0.42164785 12095926
107.24777 -51.105591 -14.616289 15268432
112.33982 -45.561989 -5.9836674 15268432
109.98083 -50.504536 -9.701149 15268432
128.32845 -70.304413 0.58359957 9306614
120.21943 -51.473625 -0.57763845 7367103
144.75298 -51.129364 -0.12456694 7367103
109.3258 -42.272449 -9.3583345 15268432
127.64071 -63.66399 0.58165956 9306614
138.01558 -40.875015 -0.41087538 7367103
127.8653 -58.432415 0.57463241 9306614
108.34562 -37.255249 -11.075359 15268432
118.8834 -46.21534 -0.62525427 7367103
128.00885 -53.127724 0.56816769 9306614
105.62952 -26.638144 -6.5872984 13848784
124.45465 -37.456276 -0.35773587 12095926
128.12976 -47.67075 0.57093865 9306614
118.65038 -39.853428 -0.61601031 7367103
140.1281 -24.56109 -9.6186008 11470476
119.6654 -32.009315 -0.28400934 5311780
138.28711 -35.166206 -0.68931586 7367103
107.5417 -22.108135 -7.55266 13848784
132.52567 -29.361574 -0.42861977 12095926
128.2364 -42.08651 0.57411242 9306614
117.76621 -33.990913 -0.72841835 7367103
138.8129 -29.951006 -0.93218088 7367103
137.21989 -24.14377 -0.90673745 7367103
128.68817 -36.437843 0.62021685 9306614
119.98828 -19.762423 -0.49896252 7367103
108.15017 -15.932108 -6.9074988 13848784
128.00603 -30.335594 0.57667214 9306614
142.50488 -13.794826 -0.25158742 12095926
128.35988 -23.981812 0.5718053 9306614
136.91893 -6.6600876 -0.30349806 5311780
118.14492 -12.974998 0.061992489 7367103
153.89668 3.6099243 -2.7619245 4273881
128.40196 -17.558535 0.59201896 9306614
119.74693 7.53689 -4.04391 10274327
153.71066 9.0498199 -6.297575 4273881
128.22986 -10.920648 0.56703579 9306614
138.11607 -1.535532 -0.23335904 5311780
142.07724 15.184566 -1.5716906 7367103
118.72366 9.0242548 -0.2583774 7367103
128.46097 -4.4534512 0.57239503 9306614
138.19199 4.2059422 -0.23252319 5311780
120.13557 12.802889 -4.1946893 10274327
119.95657 15.890417 -0.57447135 7367103
139.69763 18.309723 -6.720912 11470476
117.96698 24.858755 -4.5078259 4273881
128.70035 2.1312218 0.56962264 9306614
138.51048 9.2867184 -0.2151735 5311780
136.99271 17.043505 -0.28601763 5311780
128.76602 9.0491276 0.57189608 9306614
156.11214 35.14172 -3.9193802 4273881
117.34391 18.576063 -5.1211758 10274327
118.52995 21.90596 -0.89139754 7367103
138.90987 32.640312 -0.45401129 12095926
107.39127 38.10144 -13.152961 15268432
153.02966 39.503067 -3.9964888 4273881
128.83957 16.060375 0.5893923 9306614
138.58559 22.557407 -0.18488063 5311780
115.49029 30.085142 -5.4360962 4273881
118.34982 29.142445 -0.88909346 7367103
150.2523 43.665878 -4.9071193 4273881
128.84729 23.155697 0.57350224 9306614
118.22606 34.23053 -0.79092395 7367103
136.84966 41.804718 -0.28787798 5311780
141.73785 51.243187 -1.6218596 7367103
140.08766 53.54715 -9.6644135 11470476
124.4523 42.931629 -0.34040162 12095926
128.8156 30.442749 0.58972824 9306614
117.69666 40.68457 -0.68601197 7367103
150.00655 50.199104 -3.8503346 4273881
119.2965 49.605091 -0.76060176 7367103
119.67333 61.804527 -5.6279583 15268432
128.86714 37.754864 0.57170999 9306614
138.17136 46.729836 -0.21410698 5311780
132.54872 50.758358 -0.41819903 12095926
137.13467 53.793335 -0.27765998 5311780
128.99136 45.046783 0.5942995 9306614
119.58681 60.393482 -0.21651088 5311780
118.32001 55.701172 -1.3662686 7367103
154.48466 76.531776 -6.1559973 4273881
128.26892 52.534878 0.56717163 9306614
128.6091 57.704025 0.56919289 9306614
118.43204 67.189499 -0.20783912 5311780
136.99394 74.126015 -0.28337532 5311780
154.62708 83.269241 -3.7965112 4273881
140.14223 86.502014 -9.6575527 11470476
128.5892 65.168915 0.58108824 9306614
118.05206 72.994522 -0.17268491 5311780
142.58438 84.83242 -1.2789146 7367103
111.71592 84.720848 -0.39047593 12095926
105.20126 93.765495 -9.1068239 15268432
113.37973 92.492867 -0.680915 7367103
128.56532 72.427147 0.56267375 9306614
138.58963 80.26619 -0.21645468 5311780
119.49009 87.573212 -0.27727932 5311780
128.49329 79.485893 0.55484617 9306614
119.94107 97.684982 -0.30789712 5311780
128.43613 86.377892 0.55449289 9306614
