# .PCD v0.7 - Point Cloud Data file format
VERSION 0.7
FIELDS x y z rgb
SIZE 4 4 4 4
TYPE F F F U
COUNT 1 1 1 1
WIDTH 1247
HEIGHT 1
VIEWPOINT 0 0 0 1 0 0 0
POINTS 1247
DATA ascii
0.90794849 5.4696102 66.639023 2500275
-11.807204 8.5225763 66.733856 8388608
-7.4917092 7.883944 66.65107 8388608
-7.0972986 7.3137188 66.818726 192
-11.808911 9.0857134 66.746101 8388608
2.5354717 2.2361047 64.359016 8388608
-5.9734941 4.8459167 64.204514 8388608
5.059834 5.2499199 64.782822 8388608
-7.4918933 5.7339449 64.283546 8388608
5.001152 6.1387939 64.595757 8388608
-14.891233 10.119981 64.144691 8388608
-15.349247 11.168289 63.637428 8388608
5.0462384 1.3825008 66.108658 8388608
6.2493324 1.7365919 66.431274 8421376
1.5360429 3.5319664 65.35598 8388608
2.7651992 2.9566689 65.531036 8388608
4.8314285 2.3558786 65.969261 8538121
6.3157396 2.7138324 66.361656 8488248
7.5339832 3.1746912 66.469818 5336633
-5.9192591 4.6880221 64.813431 8388608
-4.4983521 5.2321339 65.733078 8388608
-3.4904983 4.8108611 65.809822 8653832
-0.6507048 4.1231213 65.977577 8455170
0.611013 3.7780974 65.818909 8388608
3.3013377 5.2005644 65.722321 7277841
4.8330865 5.0100594 65.643921 7996941
6.6034517 4.2935853 66.306847 5323868
7.4218178 3.6416588 66.509132 3297411
-11.673503 7.1176224 65.723572 8388608
-7.7494779 6.1007366 65.775391 8853263
-6.6045394 6.3581285 66.323425 8347815
-4.2807884 6.9396524 65.952507 8720395
-3.2827773 6.7872148 65.776115 9384995
-0.68504924 6.3661976 65.707687 8258561
0.80463189 6.023386 66.00396 7800330
2.658905 5.533113 65.869942 8126469
5.0599489 6.2383866 65.52523 8257537
5.5888548 5.6773624 66.091217 8935743
-11.79752 8.1791525 65.899292 8388608
-8.0412273 7.8465624 65.691849 8388608
-6.2727656 7.4739895 65.962914 8388608
-4.0481644 7.3211088 65.877411 8388608
-3.5690708 7.2414365 65.753197 8400896
-11.806945 9.0363674 66.223457 8388608
4.8965716 1.0348428 66.726074 8388608
5.7856479 1.6254196 66.81002 14314417
3.2417133 3.0099998 66.729561 8193289
4.7759595 2.4889405 66.757774 4069709
6.6793342 2.8919194 66.707825 4407428
7.4228997 3.1051743 66.672768 4346472
-4.4240561 5.1889038 66.76593 8388608
-3.3927615 4.9323936 66.735184 8658189
-0.35812029 4.8595071 66.70858 8399445
1.2581519 4.4520836 66.721542 7479893
2.6637166 4.4998193 66.694931 5383827
4.5444217 4.0154376 66.663391 6380382
6.6172042 3.7925203 66.629234 5596249
7.4221835 3.6525133 66.637917 4224576
-8.1921511 6.6491332 66.732605 9124957
-4.4471083 6.6243877 66.691101 7082603
-2.7787914 6.0282879 66.789879 8405120
-0.86728984 5.9915447 66.676758 5779592
0.79472685 5.5767641 66.632538 2770865
-11.803736 8.3612061 66.76545 8388608
-8.010849 7.5336204 66.819435 8399445
-5.9189119 7.2565985 66.757057 2097296
-4.3504667 7.2059612 66.660187 8388608
-11.805646 9.0942802 66.679344 8388608
2.5314007 2.2593398 64.383751 8388608
-5.9599385 4.7930665 64.215813 8388608
5.0555835 5.253407 64.780495 8388608
-7.4970164 5.6767497 64.254578 8388608
4.9959965 6.1252217 64.594612 8388608
-14.837709 10.195427 64.071533 8388608
-15.308846 11.068177 63.66312 8388608
5.0459876 1.3843849 66.109497 8388608
6.2488542 1.7339935 66.432594 8421376
1.5332929 3.5253477 65.337364 8388608
2.7581336 2.9379663 65.525742 8388608
4.8368502 2.3576756 65.971352 8538120
6.3660965 2.7813382 66.369743 7967040
7.551055 3.198462 66.47097 5272625
-4.2572107 5.1039929 65.745163 8388608
-3.5427523 4.7507138 65.753601 8455171
-0.58164388 4.1786861 66.040291 8788244
0.52440768 3.822053 65.830643 8127237
3.2472713 5.1147575 65.720024 7542042
4.8539395 5.0042763 65.641739 8062220
6.5674152 4.3255687 66.303589 5714267
7.4201884 3.6457992 66.477066 3695238
-11.747084 7.0326304 65.974174 8388608
-9.7142792 6.9752164 66.318283 12632192
-7.4920855 5.9266338 65.600555 8388608
-6.313334 5.9821696 66.179039 8339567
-4.2398758 7.0312448 65.885117 8455170
-3.4020569 6.8724012 65.731323 8853803
-0.7493813 6.3579412 65.715721 8192769
0.84712178 5.9944205 66.00074 7145236
2.5834453 5.5329132 65.85614 7995399
5.0560355 6.2201285 65.537132 8257537
5.5402656 5.6591406 66.105873 8805445
-11.789087 8.1287022 65.833771 8388608
-8.1840591 7.8325086 65.518646 8388608
-6.1756911 7.433897 65.965935 8388608
-4.0398149 7.2957239 65.921188 8388608
-3.5707633 7.2659392 66.425156 8421376
-11.811637 9.0366602 66.308571 8388608
4.9569187 0.90429288 66.74955 8388608
5.8090487 1.4721537 66.859596 10447520
3.2594097 2.9781706 66.734085 8062219
4.7666454 2.4658341 66.756035 4331848
6.6908455 2.8517158 66.710571 3948421
7.422102 3.1060085 66.672935 4346473
-4.5442448 5.2863216 66.753716 8388608
-3.349076 4.9557142 66.736328 8725521
-0.91421688 4.2493572 66.661217 8388608
1.0175253 4.7365694 66.734413 6434680
2.8003361 4.333271 66.693268 5841552
4.5411129 4.0174432 66.664101 8210037
6.627377 3.7890728 66.628258 5269330
7.420826 3.6535399 66.637688 4224576
-11.804453 7.0812054 66.715225 8388608
-9.8435707 6.9553638 66.646729 12632192
-7.4881063 6.084219 66.65741 8388608
-6.3129158 6.8258719 66.844559 8405120
-4.7434211 6.3190203 66.706223 4332496
-2.3402481 5.9629555 66.748375 6051949
-0.9331485 5.991993 66.651772 1776566
0.86089545 5.5062361 66.636955 1787547
-11.807698 8.3001146 66.756599 8388608
-7.100667 7.7691517 66.657936 8388608
-4.3539047 7.2015877 66.665039 8388608
-11.809895 9.0954523 66.764359 8388608
2.5411284 2.3046956 64.385529 8388608
-5.9335499 4.8676591 64.183502 8388608
5.0619612 5.247623 64.7808 8388608
-7.6032472 5.8437271 64.251595 8388608
5.0080061 6.1473355 64.593719 8388608
-14.882739 10.166782 64.092171 8388608
-15.278547 11.176885 63.611607 8388608
5.0528574 1.376641 66.132263 8388608
6.2455492 1.74114 66.429176 8421376
1.5352943 3.53689 65.254967 8388608
2.7748625 2.9647255 65.528877 8388608
4.8369417 2.3517151 65.955376 8537353
6.3218222 2.7283547 66.362747 8226872
7.5504665 3.1957147 66.470894 5207089
-4.2543206 5.187572 65.76664 8388608
-3.5070455 4.8229499 65.73468 8587270
-0.62818134 4.1490221 65.990105 8521476
0.69888979 3.7738914 65.79467 8388608
3.2576513 5.14395 65.692207 7738131
4.8430033 5.0209379 65.653191 7996940
6.5680251 4.3341761 66.320877 5451872
7.4201636 3.6552689 66.512894 3231873
-11.644142 7.1366348 65.628342 8388608
-7.6166887 6.1054163 65.736366 8786700
-6.3085909 6.05581 66.13546 7480940
-4.3191519 6.9044986 65.829155 8919056
-3.3333282 6.752562 65.728691 9447208
-0.72171783 6.3859777 65.640358 8193796
0.85570824 5.9843707 65.891296 7540248
2.6723852 5.545001 65.838661 8388608
5.0625796 6.2606621 65.553459 8257537
5.584641 5.70753 66.129547 9064259
-11.765172 8.1909227 65.876305 8388608
-7.814261 7.8875103 65.893211 8388608
-6.2804923 7.5214148 65.869675 8388608
-4.0909333 7.3290925 65.993706 8388608
-3.5654199 7.2732611 65.809235 8402944
-11.867719 9.0492315 65.912811 8388608
4.9189129 0.88072032 66.746178 8388608
5.8076129 1.4748993 66.853806 10185375
3.259243 3.0126181 66.726814 8061963
4.7615294 2.4737766 66.750626 4266312
6.6825943 2.8484752 66.708694 4013703
7.4216309 3.1083736 66.672234 4280937
-4.3458447 5.3183904 66.695526 8388608
-3.4488828 4.8477263 66.749634 8330761
-0.73734194 4.8432913 66.767097 6692966
1.1962531 4.645021 66.70948 6696320
2.7552195 4.4035034 66.687347 4924562
4.5292792 3.9904068 66.664047 6381401
6.6709805 3.7855086 66.627045 5465173
7.420475 3.6554945 66.63707 3963452
-7.7977309 6.1594076 66.684242 8388608
-7.0923595 7.0055599 66.849304 8405120
-4.8698983 6.3769374 66.653595 3807438
-2.385545 5.9377508 66.760498 8405120
-0.22858953 5.6677938 66.668762 8428384
0.9087742 5.4912744 66.631973 5007014
-11.800013 8.481884 66.740349 8388608
-7.0927339 7.2942533 66.812309 8405120
-4.3479133 7.2266383 66.642509 8388608
2.5136747 2.2906413 64.374855 8388608
-5.9534941 4.8580461 64.188591 8388608
5.0598631 5.2587285 64.781326 8388608
-7.4912205 5.7503271 64.292786 8388608
5.0037003 6.1467781 64.593758 8388608
-14.86047 10.161493 64.101028 8388608
-15.131073 11.1234 63.646561 8388608
5.0464425 1.3852024 66.125702 8388608
6.2453156 1.7377841 66.435478 8421376
1.5339557 3.5395396 65.306282 8388608
2.7844524 2.9519708 65.544266 8388608
4.8322058 2.3549383 65.962242 8537608
6.3015985 2.7177932 66.359093 8684604
7.5511346 3.1963112 66.469376 5207600
-4.3829517 5.1915469 65.74221 8388608
-3.4910207 4.8265142 65.793137 8587783
-0.65551645 4.1292915 65.99427 8388608
0.62754256 3.7781973 65.76078 8388608
3.2800176 5.1721969 65.712296 7147798
4.8412161 5.0175061 65.663353 7931406
6.5792341 4.3402295 66.326981 5320293
7.4199705 3.6535876 66.535721 2834557
-11.802143 7.1459327 65.686806 8388608
-9.4480162 7.1039925 66.052841 12632192
-7.7368412 6.1081781 65.684784 8720651
-6.7006412 6.4679546 66.562332 4128975
-4.2748494 6.935112 65.899605 8853006
-3.4915919 6.676342 65.699806 9380894
-0.68464762 6.38304 65.732124 8127235
0.84923583 6.0051856 66.001862 7146008
2.5947213 5.5546894 65.854599 7995399
5.0611739 6.263176 65.556198 8257537
5.6167564 5.7266145 66.152023 9194307
-11.772544 8.1124372 65.735588 8388608
-7.8023772 7.8465896 65.8564 8388608
-6.2194476 7.4768963 65.874863 8388608
-4.0368476 7.3283606 65.938347 8388608
-3.5671175 7.2559061 65.636726 8397824
-11.882031 9.0491219 65.886337 8388608
4.927691 0.88747329 66.747032 8388608
5.8092828 1.4774549 66.857231 10250912
3.2770658 2.9891753 66.732857 8128011
4.7549486 2.4737897 66.752075 4397126
6.6905684 2.8420217 66.709831 3882886
7.421576 3.1106343 66.67308 4280938
-3.9531152 4.9873071 66.822426 8388608
-3.4305058 4.9485421 66.723427 8720394
-1.0768477 4.3684945 66.74958 5570624
0.98176175 4.5074105 66.729027 6496880
2.8165607 4.3439188 66.69194 4791451
4.5345569 3.9974997 66.664368 7949681
6.6846871 3.8002586 66.626053 5203794
7.4203715 3.6570289 66.637711 3963452
-8.0729456 6.4246998 66.626038 10510400
-6.5041971 6.6718445 66.751678 6234279
-4.6090908 6.7271867 66.66787 4721799
-1.9931229 5.6030354 66.783516 2787882
-0.81736922 5.903666 66.657837 192
0.94761121 5.5308485 66.61499 6316192
-11.799673 8.0623703 66.804222 8388608
-11.801033 9.1356602 66.742989 8388608
2.5715668 2.2918165 64.39296 8388608
-5.926115 4.8704944 64.18869 8388608
5.0644484 5.2540026 64.780777 8388608
-7.485424 5.8432188 64.263229 8388608
5.0156407 6.1627998 64.598801 8388608
-14.897429 10.196835 64.181396 8388608
-15.11565 11.221863 63.714138 8388608
5.0529618 1.3808714 66.15152 8388608
6.2435722 1.7487185 66.429771 8421376
1.5357548 3.5487139 65.22319 8388608
2.7825434 2.9787936 65.526787 8388608
4.8434854 2.3495758 65.958664 8536840
6.2696733 2.6751971 66.345688 8750393
7.5518074 3.1923327 66.469193 5207601
-5.9159164 5.3833885 64.817886 8388608
-4.3270264 5.2510414 65.830734 8388608
-3.5388958 4.8128471 65.667572 8455171
-0.6369046 4.1663928 65.881783 8455427
0.67025119 3.8124783 65.797638 8388608
3.2845523 5.1508088 65.817253 7018785
4.8511424 5.0293126 65.663094 7931407
6.5864296 4.3551273 66.327507 5254755
7.420114 3.6552284 66.537521 2833790
-11.666386 7.1356683 65.596886 8388608
-7.5179005 6.0679731 65.62738 8455427
-5.9140887 6.2892666 66.000488 12632192
-4.3917723 6.8097248 65.893799 8985618
-3.4637926 6.8893185 65.56675 8918032
-0.64535695 6.3971143 65.682022 8192512
0.79214466 6.0739999 66.017166 7996938
2.7373722 5.5413747 65.880112 8060934
5.0655961 6.2651024 65.564896 8257538
5.6144075 5.7286515 66.162758 9391681
-11.780968 8.1691418 65.899139 8388608
-8.0176029 7.9907532 65.946152 8388608
-6.1556349 7.5141068 65.877335 8388608
-4.1379437 7.3368053 65.951141 8389120
-3.5611851 7.3143106 65.986801 8406784
-11.79633 9.0823288 66.120232 8388608
4.90411 0.87525898 66.744728 8388608
5.7819142 1.4675797 66.855064 10250911
3.3152373 3.0520236 66.728455 7537943
4.7913175 2.452733 66.75367 4200266
6.6856475 2.8368905 66.712517 4013449
7.4212637 3.1132946 66.672211 4215657
-4.213531 5.2592835 66.758873 8388608
-3.5598919 5.0267649 66.783089 8388608
-0.42266002 5.2848434 66.767235 8405120
1.02042 4.5650687 66.718628 8202583
2.6654754 4.4897332 66.687218 5055634
4.5268021 4.1276226 66.658508 7033196
6.5642128 3.8245363 66.629898 5791579
7.4203897 3.6584713 66.637688 3571510
-7.8738384 6.1874394 66.664894 8388608
-4.8673291 6.1905236 66.643349 5776854
-2.9868288 6.2353253 66.742218 9320880
-0.42274815 5.6268811 66.715553 7882888
0.6751281 5.8145599 66.612167 2513331
1.9300303 5.4408817 66.604904 192
-11.795373 8.3312016 66.722389 8388608
-9.0499592 7.5428195 66.909401 8405120
-8.2660627 8.192709 66.650101 8388608
-6.9586911 7.6774564 66.757385 2752640
-11.795365 9.0830917 66.737747 8388608
2.539746 2.2799232 64.374557 8388608
-5.9337387 4.8773003 64.197868 8388608
5.0754328 5.3429284 64.794144 8388608
-7.4742789 5.828227 64.30336 8388608
-6.2983828 5.4472461 64.462555 8388608
5.0183744 6.1953917 64.592613 8388608
5.470428 6.3823538 64.646133 8388608
-14.828218 10.295009 64.249352 8388608
-15.051917 11.212655 63.873436 8388608
5.0527463 1.3713783 66.152321 8388608
6.2468462 1.7391795 66.431137 8421376
1.5417998 3.5563967 65.217407 8388608
2.7722409 2.9929452 65.534431 8388608
4.8355312 2.3413706 65.948746 8471047
6.2330918 2.6324713 66.33548 9208119
7.5602188 3.1860311 66.469955 5207857
-5.9061909 4.9890566 64.830093 8388608
-4.3763399 5.2854829 65.727264 8388608
-3.4737697 4.8715701 65.832954 8587783
-0.61379945 4.1937351 65.973396 8588039
0.78102732 3.7964983 65.84536 8454400
3.3988762 5.2137523 65.761696 7345427
4.8668127 5.0313401 65.676384 7996685
6.6067486 4.3559089 66.327957 5319780
7.430141 3.6529691 66.538414 2898052
-11.689577 7.1105485 65.987228 8388608
-9.8141632 7.0415797 66.454346 12632192
-7.5850477 6.1072693 65.715294 8786700
-6.2905126 6.098166 65.816109 8339567
-4.2590427 6.9990516 65.916992 8454915
-3.4122584 6.9170651 65.735527 8593439
-0.69175357 6.4301043 65.717735 8257792
0.82517266 6.0812073 65.996735 8127236
2.7409592 5.5499353 65.891586 8060934
5.08178 6.2598934 65.575569 8257793
5.6336851 5.7240329 66.174088 9260099
-11.769387 8.1723862 65.9217 8388608
-7.9319658 7.9182472 65.718086 8388608
-6.1281347 7.5273705 65.996658 8388608
-4.0130582 7.320817 66.017174 8389376
-3.5420053 7.2828741 65.678322 8397824
-11.76928 9.1046715 66.18074 8388608
4.9389043 0.90739495 66.739967 8388608
5.8104906 1.4798672 66.847305 10316705
3.2592103 2.9609194 66.739182 8391176
4.7852926 2.4552875 66.756477 4331334
6.6964588 2.8431189 66.71199 4013192
7.429368 3.1114888 66.673019 4215656
-3.9367342 5.0358529 66.841507 8388608
-3.3210032 4.9816828 66.759453 8064278
-0.68054897 4.6461062 66.723419 8001334
1.0061646 4.6101489 66.755081 7548506
2.9557188 4.5095491 66.701157 5452170
4.5695271 4.0269794 66.671844 7031667
6.5876117 3.8342519 66.632965 5791324
7.430584 3.6565125 66.638657 3440948
-9.8132114 7.0673862 66.659523 12632192
-7.6587915 6.2290134 66.731842 8388608
-4.7741714 6.0466146 66.736343 7212891
-3.400219 6.3915415 66.791138 6563250
-0.71016908 5.8220558 66.720802 6047068
0.53565598 5.8026843 66.644669 2108582
1.946327 5.5006576 66.616829 192
-11.769822 8.2120924 66.756203 8388608
-9.8093996 7.8029475 66.983856 8405120
-7.6532073 7.7690773 66.842262 192
-6.8692398 7.8085642 66.725586 8388608
-3.5377927 7.3623033 66.614967 8421376
-11.766734 9.1620979 66.739624 8388608
2.5296788 2.2797563 64.379807 8388608
-5.9626994 4.8548326 64.211578 8388608
5.0639644 5.2665081 64.783112 8388608
-7.4871693 5.7717361 64.300606 8388608
-6.3092556 5.4184871 64.646339 8388608
5.0087781 6.1500554 64.596298 8388608
-14.845754 10.197758 64.115768 8388608
-15.367566 11.193313 63.669239 8388608
5.0466623 1.380003 66.118134 8388608
6.2468452 1.733234 66.427261 8421376
1.5364571 3.5421367 65.314812 8388608
2.765029 2.9603672 65.534805 8388864
4.8354468 2.3512125 65.958443 8537608
6.2912803 2.6929922 66.355865 8618806
7.5513954 3.1841755 66.473923 5142322
-5.9164863 4.8287077 64.815712 8388608
-4.2649913 5.1866932 65.806549 8388608
-3.5594769 4.7868118 65.741806 8388865
-0.56491166 4.206315 66.077942 9051924
0.58010894 3.7857378 65.819756 8519936
3.3113716 5.171001 65.737831 7345170
4.8507538 5.0133481 65.669395 7865615
6.5963359 4.3332682 66.327705 5188963
7.4242234 3.6500161 66.537933 2833536
-11.722186 7.0663438 65.934334 8388608
-9.8304462 6.9820361 66.449615 12632192
-7.4814034 5.9736137 65.606926 8388608
-6.1451545 6.0167723 66.267937 10056566
-4.2381253 7.0432897 65.875572 8521733
-3.4769111 6.9254465 65.632706 9049108
-0.71167403 6.392127 65.685097 8257792
0.82112736 6.0307369 66.015373 7669519
2.6743975 5.536829 65.886925 8060934
5.0675945 6.2570481 65.563156 8257537
5.6273966 5.7213421 66.161957 9259844
-11.764823 8.1597214 65.893753 8388608
-8.1078587 7.8904142 65.736954 8388608
-6.1960144 7.4878616 65.975311 8388608
-4.0412078 7.3015928 66.053307 8388608
-3.5560791 7.2944126 66.388229 8421376
-11.8491 9.0626554 65.924606 8388608
4.9501534 0.90903872 66.74353 8388608
5.821876 1.480937 66.850685 10447521
3.278482 3.0469871 66.732903 8062476
4.7527776 2.4532223 66.755302 4461893
6.694623 2.8500948 66.708794 3948165
7.4242783 3.1068437 66.672836 4280937
-4.2084975 5.1570778 66.768715 8388608
-3.0724297 4.8822675 66.73912 10818634
-0.6007821 4.662056 66.757599 7215436
1.2189655 4.5214171 66.741066 7874912
2.6907248 4.4324245 66.709129 5514130
4.5652413 4.0165153 66.666397 6379873
6.6293421 3.7988265 66.628258 5791579
7.4247074 3.6537869 66.638077 4094270
-11.790014 7.1399617 66.723793 8388608
-9.8295422 7.0082483 66.654755 12632192
-7.4767394 6.1299419 66.663963 8388608
-5.9076638 6.7649136 66.730339 4210858
-4.7313271 6.270771 66.722992 8798561
-2.6396611 5.9037328 66.774498 9516453
-0.65311128 5.8368464 66.687393 6701190
0.80742294 5.5806947 66.640488 3162288
-11.789612 8.3022509 66.75544 8388608
-7.8678799 7.5954018 66.821266 8399445
-5.9075737 7.4149513 66.717285 5570624
-11.789282 9.0022135 66.794693 8388608
2.5690348 2.2953398 64.38221 8388608
3.8848412 2.0466697 64.76889 8388608
-5.935885 4.8793597 64.187691 8388608
5.0647779 5.2562828 64.781418 8388608
-7.5921464 5.8521771 64.268433 8388608
5.0126319 6.1453037 64.595253 8388608
-14.844908 10.202095 64.101028 8388608
-15.203918 11.196066 63.635727 8388608
5.0478435 1.3728126 66.121338 8388608
6.2425532 1.7381572 66.421967 8421376
1.5349997 3.5409641 65.257217 8388608
2.7710137 2.9693418 65.533066 8388608
4.8288269 2.3470082 65.951935 8537352
6.2954707 2.702033 66.353714 8945213
7.5439954 3.1798501 66.474457 5011508
-4.286222 5.1954212 65.669266 8388608
-3.4676814 4.8409066 65.808807 8719114
-0.65168804 4.1397009 65.976074 8388608
0.71133763 3.7750714 65.802643 8257792
3.3284888 5.202868 65.74398 7344914
4.8476672 5.0103221 65.663017 7931407
6.5817165 4.3368244 66.327759 5254756
7.4214067 3.6494312 66.536011 2768000
-11.793378 7.1700292 65.610695 8388608
-9.4391108 7.1327739 66.05275 12632192
-7.7419734 6.1423006 65.678947 8720651
-6.6931267 6.4907675 66.562248 4128975
-4.2833996 6.9557347 65.874794 8786957
-3.4217327 6.6756339 65.763519 9317666
-0.6603893 6.3825674 65.653526 8192260
0.84655237 6.0192351 65.99865 7408150
2.7057042 5.5422592 65.889824 8126469
5.0682425 6.2630272 65.557671 8257537
5.6209068 5.7191968 66.147003 9260099
-11.764768 8.1720352 65.813248 8388608
-7.8045726 7.8827152 65.971893 8388608
-6.2605481 7.5218625 65.926979 8388608
-4.0251732 7.3315868 65.981026 8388608
-3.5575924 7.2655125 65.735199 7677967
-11.839641 9.069006 65.846741 8388608
4.9195747 0.87993884 66.742989 8388608
5.8029356 1.4745467 66.847816 10382242
3.3295407 2.9686401 66.731758 7865358
4.7627077 2.5432181 66.748604 4791630
6.6931081 2.857584 66.706299 4079237
7.4217744 3.1055272 66.672813 4281193
-4.2103171 5.1356711 66.754707 8388608
-3.0743814 4.9187269 66.728096 10493505
-0.81275725 4.290163 66.679543 6291504
1.1737514 4.5907841 66.712532 7744358
2.9058254 4.3601928 66.685387 5513617
4.5528774 4.0086789 66.662804 8079735
6.6285529 3.7926929 66.62735 5399892
7.4217534 3.6533813 66.637444 4290113
-8.0655231 6.4504714 66.625916 10510400
-6.2996593 6.9880056 66.815041 8405120
-4.7319441 6.4598918 66.70166 4065412
-1.9873142 5.8815455 66.749207 4224832
-1.0071052 5.9415712 66.6688 3158192
0.70104724 5.5117564 66.645241 7164562
-11.788401 8.6259623 66.720383 8388608
-7.4756165 7.9496508 66.648506 8388608
-3.947051 7.2036972 66.631378 8388608
-11.787802 9.0935001 66.752769 8388608
2.5336888 2.2683363 64.36351 8388608
-5.9534321 4.8689494 64.195618 8388608
5.0602417 5.2498288 64.781944 8388608
-7.490272 5.763061 64.297333 8388608
5.005857 6.1424189 64.594521 8388608
-14.853498 10.184422 64.108635 8388608
-15.213415 11.178211 63.643635 8388608
5.0382657 1.3719419 66.096924 8388608
6.2412286 1.7339005 66.424706 8421376
1.5321054 3.5395744 65.307953 8388608
2.7700529 2.9459453 65.527306 8388608
4.8267245 2.353579 65.962616 8537608
6.2955098 2.7014508 66.35675 9010237
7.5402942 3.1754589 66.474831 5011764
-4.399466 5.2027116 65.74601 8388608
-3.4909768 4.8333249 65.79644 8587783
-0.65638363 4.1321473 65.996658 8388608
0.68593436 3.7738986 65.806213 8257792
3.3242781 5.1404524 65.775131 7281940
4.8480654 5.0119405 65.659859 7931407
6.5800486 4.3353529 66.326965 5320292
7.4186292 3.6490865 66.536179 2767744
-11.798929 7.1642094 65.692802 8388608
-9.4447708 7.1189299 66.058243 12632192
-7.7424932 6.134491 65.796738 8786444
-6.6981468 6.4789701 66.566864 4128975
-4.2851415 7.036972 65.825165 8521733
-3.328532 6.9047537 65.654396 8526862
-0.67525738 6.3872433 65.696587 8257794
0.84342414 5.9985828 65.994522 7409179
2.6970544 5.5430021 65.900543 8192003
5.0631003 6.2601252 65.558495 8257537
5.6188197 5.7194729 66.152031 9259843
-11.763955 8.1394148 65.821655 8388608
-7.810843 7.8701711 65.977104 8388608
-6.2252617 7.4978976 65.934494 8388608
-4.0405231 7.314446 65.990822 8388608
-3.5637708 7.2628717 65.640724 7609105
-11.853723 9.0613489 65.898895 8388608
4.9137278 0.80193609 66.74649 8388608
5.8024626 1.4747912 66.848236 10382242
3.3163111 2.9450822 66.736862 7799053
4.7149892 2.5395839 66.748901 4201804
6.6974292 2.8730779 66.704369 4079236
7.4195857 3.1052144 66.672882 4346729
-4.1488161 5.0929494 66.775253 8388608
-3.1988132 4.9266233 66.722511 9902126
-0.7505396 4.2784057 66.718758 5570624
1.1576163 4.6023808 66.714836 6958180
2.9411185 4.3239298 66.684212 4865157
4.555861 4.0197167 66.663666 8144503
6.624639 3.7939181 66.627403 5399892
7.4189563 3.6530623 66.637489 4290113
-8.1358442 6.4283071 66.634888 9781290
-6.6970458 6.8034635 66.867966 8405120
-4.6976624 6.4153609 66.715927 4197261
-1.9917921 5.7746401 66.765137 8405120
-0.97246361 5.9554191 66.666122 2500275
0.75285512 5.4837952 66.654274 3491722
-11.795178 8.3761988 66.709198 8388608
-6.1091881 7.2842178 66.714508 8396864
-11.794811 9.0776777 66.759308 8388608
2.5298877 2.2404292 64.355949 8388608
-5.9799237 4.8454442 64.200333 8388608
5.0543475 5.2618413 64.7827 8388608
-7.4971399 5.7442317 64.287155 8388608
-6.3184423 5.4135532 64.797874 8388608
4.9966993 6.1417184 64.59713 8388608
-14.89044 10.147759 64.161034 8388608
-15.244187 11.155087 63.697132 8388608
5.0409107 1.3829097 66.104584 8388608
6.2420311 1.7356284 66.427002 8421376
1.52965 3.5364392 65.357162 8388608
2.7546656 2.9553878 65.524681 8388608
4.8252449 2.3560874 65.969612 8537864
6.2980189 2.6869767 66.358521 8618805
7.5407009 3.1723895 66.472748 5077298
-5.9251547 4.7503438 64.809586 8388608
-4.5223398 5.2435961 65.738983 8388608
-3.4943023 4.8094406 65.812805 8587783
-0.6653657 4.1148882 65.970818 8388608
0.63112777 3.7796962 65.823265 8519937
3.3127732 5.1680717 65.78566 7280916
4.8454309 5.0099816 65.666077 7865616
6.5778141 4.3450017 66.322212 5254754
7.4157581 3.6487134 66.53669 2767489
-11.696146 7.139205 65.800415 8388608
-7.8113022 6.1318836 65.837204 8919056
-6.3149858 6.3250809 66.302238 8347815
-4.2994447 7.0262628 65.910927 8455170
-3.2589569 6.8520532 65.71315 8726037
-0.69607967 6.3753343 65.711136 8323329
0.81086737 6.0046258 65.920021 7997194
2.6517999 5.5458379 65.90612 8257537
5.0552812 6.257895 65.562065 8257537
5.611094 5.7177835 66.157944 9259843
-11.805259 8.1455021 65.912659 8388608
-8.0449934 7.8565569 65.696487 8388608
-6.2199044 7.4690657 65.974777 8388608
-4.0825167 7.3142591 65.935219 8389632
-3.5734601 7.2462583 65.674011 8397824
-11.810151 9.038744 66.153236 8388608
4.9330072 0.86997628 66.752777 8388608
5.7919536 1.4258709 66.868195 9792413
3.2970946 2.9349165 66.737534 8060934
4.7619839 2.4924309 66.757744 4332364
6.6960497 2.8823025 66.709023 4078726
7.4164906 3.1056862 66.672752 4280937
-4.5470243 5.2525153 66.753731 8388608
-3.0059144 4.8796563 66.715881 10952782
-0.46429712 4.7270412 66.708977 7938379
1.1697713 4.3301892 66.734413 8332099
2.7336757 4.3777008 66.700478 5257606
4.5485363 4.0219946 66.665222 6248801
6.5766258 3.8113265 66.629318 5922397
7.4160452 3.6526561 66.638107 4028989
-8.0785036 6.3463178 66.675575 9449504
-4.5100985 6.5388613 66.700409 6821504
-3.1755517 6.0446019 66.820625 8405120
-1.2153391 6.1167345 66.680885 5120896
0.78967017 5.6319094 66.634857 1388984
-11.806878 8.2475128 66.752251 8388608
-8.6677837 7.4650407 66.91716 8405120
-6.1192651 7.4011183 66.73056 4194400
-4.3544621 7.2133489 66.663956 8388608
-3.5704947 7.2996655 66.601196 8421376
-11.80851 9.1060791 66.685143 8388608
2.5346169 2.2616301 64.386528 8388608
-5.9508538 4.7919507 64.19799 8388608
5.0522962 5.2626567 64.782845 8388608
-7.4996314 5.6903191 64.286194 8388608
4.9980636 6.1327658 64.598915 8388608
-14.863782 10.168381 64.116463 8388608
-15.351209 11.050355 63.666824 8388608
5.0395231 1.3810121 66.109245 8388608
6.240056 1.731392 66.431824 8421376
1.5270865 3.5343974 65.317154 8388608
2.751178 2.9445713 65.519211 8388608
4.8250794 2.356842 65.970375 8537864
6.2568331 2.6773403 66.348389 9076283
7.5402303 3.1685803 66.474182 5012530
-5.9277806 4.9175391 64.805244 8388608
-4.2096305 5.1039438 65.759773 8388608
-3.5703025 4.7510872 65.736389 8388865
-0.57922399 4.2072668 66.032707 9184793
0.57195222 3.8033223 65.848602 8127745
3.245043 5.0786257 65.784912 7348505
4.8385191 5.012588 65.661385 7931150
6.5769782 4.3386998 66.324814 5320037
7.4150667 3.6503003 66.536819 2833025
-11.776903 7.0700455 65.948944 8388608
-9.6483994 6.9677434 66.308853 12632192
-7.4937358 5.9548655 65.609489 8388608
-6.1840711 6.0796041 66.164932 8798296
-4.2744541 7.0087323 65.901344 8521733
-3.4234211 6.894032 65.664886 8854547
-0.74794632 6.3778467 65.701683 8323072
0.85006911 5.9775009 65.98777 7277590
2.7193542 5.5092759 65.898445 8126469
5.0549169 6.2572122 65.561432 8257537
5.6123238 5.7210693 66.154152 9259845
-11.785161 8.148798 65.836853 8388608
-8.4748945 7.9990301 65.89476 8388608
-6.0488133 7.4246178 65.955666 8388608
-4.0392108 7.2995028 66.007095 8388608
-3.5696402 7.2869492 66.432526 8421376
-12.205982 9.0125399 64.924271 8388608
4.9525809 0.93993998 66.747208 8388608
5.7960525 1.443923 66.866974 9202331
3.3157194 2.9291775 66.739815 7864331
4.7433443 2.4801416 66.753494 4594500
6.6790614 2.8797321 66.708031 4145283
7.4157801 3.1074359 66.67347 4281193
-4.2194843 5.1435075 66.771133 8388608
-3.066649 4.8853502 66.73999 11147373
-0.66322672 4.2001939 66.706169 6684710
1.1301787 4.5024581 66.725197 7810395
2.9368072 4.3636708 66.684845 4997255
4.5521655 4.0303397 66.666199 7948148
6.6183891 3.8004415 66.628525 5465174
7.4155407 3.6541862 66.638397 4159295
-11.803497 7.1168652 66.726463 8388608
-9.8428783 6.9875355 66.657013 12632192
-7.4889731 6.1121836 66.666382 8388608
-6.5086036 6.8274665 66.81543 7686794
-4.8000417 6.4943833 66.711792 8080542
-1.9978057 5.7496762 66.780861 8405120
-0.92035353 6.0784101 66.639442 2097248
0.94294119 5.5283489 66.632317 2110901
-11.8045 8.2934618 66.768059 8388608
-4.3527803 7.2239404 66.67276 8388608
2.5201418 2.2631083 64.381393 8388608
-5.9626312 4.7819767 64.213821 8388608
5.0479574 5.2499037 64.781792 8388608
-7.5047026 5.6710215 64.257484 8388608
4.988698 6.129436 64.594147 8388608
-14.860953 10.162708 64.091713 8388608
-15.279324 11.049057 63.664532 8388608
5.0407157 1.3873571 66.108276 8388608
6.2417998 1.7343105 66.432915 8421376
1.5259358 3.5271974 65.337296 8388608
2.7542884 2.9360266 65.522385 8388608
4.8271661 2.3575053 65.971283 8538121
6.2744174 2.6929717 66.356361 9076028
7.5357709 3.1583471 66.473961 4947507
-4.2475119 5.098011 65.730614 8388608
-3.5741394 4.7415004 65.737846 8388865
-0.57571119 4.204627 66.066628 8986905
0.55839837 3.847291 65.88781 7932166
3.2511246 5.0944209 65.79187 7414043
4.8369021 5.0084076 65.659729 7931150
6.5726409 4.336688 66.324982 5320036
7.4129872 3.6510277 66.536392 2768254
-11.782863 7.0252457 65.937996 8388608
-9.7222719 6.9749322 66.318451 12632192
-7.4998765 5.9268513 65.600616 8388608
-6.2718863 5.9277959 66.197708 8865891
-4.2502122 7.0080075 65.889259 8521733
-3.581615 6.9461722 65.521202 8587015
-0.74825269 6.3654242 65.689957 8323073
0.83351231 5.9797716 65.982018 7146007
2.6916144 5.5082712 65.882721 8192003
5.0481882 6.256825 65.558578 8257537
5.6048622 5.7217245 66.155571 9522498
-11.797082 8.1348209 65.834892 8388608
-8.1921864 7.8326173 65.518967 8388608
-6.1659122 7.4288402 65.967018 8388608
-4.0382152 7.2879887 65.98764 8388608
-3.5788078 7.2667255 66.425499 8421376
-11.819996 9.0360098 66.308983 8388608
4.928442 1.0398004 66.726196 8388608
5.7940207 1.5794705 66.821709 13266093
3.3052778 2.9723091 66.730225 7929865
4.7458906 2.4731033 66.75737 4398665
6.6743813 2.8810909 66.709129 4210563
7.4146919 3.1078606 66.673019 4281193
-4.5517864 5.2413049 66.759628 8388608
-3.2386141 4.8911877 66.733124 10359132
-0.62720007 4.1910858 66.716919 6946848
1.1462743 4.4819169 66.727112 7743581
2.9394155 4.3468661 66.693604 4928905
4.5467682 4.0203991 66.664825 8014449
6.6195564 3.7965386 66.627808 5399893
7.4134231 3.6548865 66.637894 4224576
-11.812473 7.080492 66.715355 8388608
-9.8515663 6.9550071 66.646889 12632192
-7.4959483 6.0842762 66.657509 8388608
-6.3210845 6.8808045 66.837723 8405120
-4.808043 6.5774088 66.719292 2428873
-2.0042601 5.7705474 66.769852 7359856
-1.6129966 5.9915304 66.712105 192
0.97634685 5.5233688 66.632896 2500275
-11.816128 8.3596058 66.753296 8388608
-7.1088071 7.7692795 66.658272 8388608
-11.818561 9.0849438 66.688812 8388608
2.509233 2.2759728 64.387985 8388608
-5.9579377 4.7983513 64.205727 8388608
5.0499263 5.2677898 64.782898 8388608
-7.5022464 5.6872182 64.271858 8388608
4.9954386 6.1407714 64.597878 8388608
-14.868935 10.162344 64.117157 8388608
-15.454968 11.078147 63.656399 8388608
5.0412273 1.3874648 66.121056 8388608
6.239552 1.7402244 66.433311 8421376
1.5256605 3.5371127 65.315643 8388608
2.7488718 2.9458814 65.515457 8388608
4.8262253 2.3570621 65.970734 8537865
6.2615666 2.6870351 66.354156 8684341
7.5483518 3.1952131 66.470154 5403182
-5.9297185 4.809875 64.817299 8388608
-4.1974134 5.1501551 65.795723 8388608
-3.5725183 4.7562718 65.731384 8388865
-0.58449453 4.1999507 66.029755 9118231
0.55876732 3.8063426 65.847504 8389889
3.2428734 5.0848341 65.762932 7742492
4.8361344 5.0146732 65.664284 7996686
6.5760164 4.3408222 66.326599 5254756
7.4134297 3.6531429 66.536507 2767744
-11.72029 7.0592303 65.914253 8388608
-9.8473797 6.9565072 66.451187 12632192
-7.4966154 5.9521446 65.608406 8388608
-6.1700649 5.9272566 66.262482 8865891
-4.2716827 7.0044675 65.892838 8521477
-3.4895391 6.9345694 65.583244 8850958
-0.73946518 6.3854895 65.689545 8323072
0.82351595 6.0129633 65.992767 7276049
2.7015908 5.5140805 65.893242 8126469
5.0518565 6.2599292 65.561516 8257537
5.6094036 5.7218089 66.154633 9260100
-11.787872 8.1595192 65.89547 8388608
-8.4002056 7.9813371 65.970497 8388608
-6.1069307 7.4355898 65.977715 8388608
-4.0493708 7.3032417 65.973587 8388608
-3.573257 7.266798 66.457657 8421376
-12.210562 9.0075312 64.924568 8388608
4.9517603 0.91221088 66.748703 8388608
5.7983494 1.4748769 66.859184 10447520
3.2962842 2.9827511 66.731331 7995400
4.750948 2.4862812 66.759521 4267084
6.6808872 2.8535593 66.713615 4144263
7.4143782 3.1107526 66.673012 4281193
-4.2969713 5.2274251 66.747269 8388608
-3.5679622 4.9370403 66.800835 8388608
-0.66111517 4.6190486 66.739998 9249379
1.2487949 4.4133525 66.729607 8070741
2.8813474 4.3813739 66.697479 5519755
4.5567508 4.0232186 66.666389 6576226
6.6147065 3.7988048 66.628967 5726298
7.4139175 3.6565485 66.638184 3898171
-11.807195 7.1109214 66.725594 8388608
-9.8464918 6.9827814 66.656311 12632192
-7.4920764 6.1087914 66.665405 8388608
-6.7082186 6.8267679 66.817154 7556236
-4.921937 6.7274175 66.730171 5650339
-2.3930578 5.8951197 66.791176 8405120
-0.74636847 5.8536644 66.690208 4200832
0.84207082 5.5703988 66.630363 16576
-11.809018 8.3511381 66.762367 8388608
-8.6716385 8.1602354 66.713539 8388608
-6.3170767 7.2646589 66.747017 8396864
1.5211859 3.4674451 64.781441 8388608
2.5439312 2.2239203 64.386566 8388608
-5.9478636 4.7787433 64.269325 8388608
5.045301 5.280395 64.784233 8388608
-7.5075183 5.6746106 64.323494 8388608
4.9894056 6.1425581 64.599693 8388608
-14.869056 10.209352 64.284714 8388608
-15.151062 10.99754 63.871269 8388608
5.0415425 1.3883948 66.117363 8388608
6.2409711 1.736096 66.433281 8421376
1.523836 3.5256798 65.317574 8388608
2.7368448 2.9402032 65.519447 8388608
4.8242745 2.3585672 65.980141 8603400
6.246716 2.6589909 66.347336 9142073
7.5445199 3.1951165 66.470886 5337392
-5.9339781 4.9289322 64.832306 8388608
-4.2193403 5.1243496 65.854935 8388608
-3.5754719 4.7236023 65.766464 8388608
-0.69104952 4.1846151 65.933937 9051924
0.55108535 3.7831478 65.852821 8519936
3.2713041 5.1062069 65.791954 7216155
4.8401923 5.0157509 65.671211 7931407
6.5816164 4.351326 66.322281 5254499
7.4123025 3.6544015 66.536575 2768764
-11.816567 7.0578327 66.003235 8388608
-9.8529348 6.9355636 66.469543 12632192
-7.5014162 5.9074955 65.613434 8388608
-6.1761775 6.2252636 66.112946 10510400
-4.2214842 7.0284796 65.971802 8454658
-3.3578899 6.8354945 65.717621 9249819
-0.68410558 6.3467164 65.713837 8192000
0.81187522 6.0114865 65.977478 7996678
2.6449332 5.523839 65.878571 8257538
5.0465503 6.2539439 65.569641 8257538
5.6127653 5.7172112 66.165787 9390914
-11.824388 8.1320925 65.931602 8388608
-8.3770809 7.9514551 65.967339 8388608
-6.1966653 7.4399133 66.008278 8388608
-4.004117 7.2870998 66.008858 8388608
-3.5794387 7.2735472 66.447411 8421376
4.9515305 0.92396152 66.750656 8388608
5.8161912 1.4841321 66.859024 10381985
3.3239498 2.9901023 66.754601 7077920
4.7777424 2.4611537 66.759514 4726338
6.6788306 2.8570497 66.712326 4078982
7.4142966 3.1114423 66.670868 4215656
-3.9632268 5.0715098 66.799477 8388608
-3.5052328 4.8240066 66.749519 6946848
-0.59598982 4.5501142 66.728195 8544866
1.0960168 4.402976 66.744278 8334152
2.9469247 4.4213519 66.699974 5325706
4.5692611 4.0114136 66.670044 7882611
6.5397134 3.8285623 66.630562 5857115
7.4128318 3.6576805 66.636589 4028733
-11.812744 7.0866075 66.745811 8388608
-9.8519306 6.9612899 66.674736 12632192
-8.0853224 6.6075654 66.831635 8197994
-6.5146394 5.7936511 66.759247 9449504
-4.1636014 6.4501204 66.759613 8667246
-3.3399124 6.470582 66.798866 3348902
-0.92650276 5.801682 66.727547 4204869
0.58319342 5.6984186 66.644279 1263289
1.9168909 5.5255022 66.611885 192
-11.815873 8.1886387 66.771133 8388608
-10.04884 7.8147054 66.997894 4213616
-8.2854538 7.8717237 66.773697 4194400
-6.7156973 7.553947 66.804314 8388608
2.5913756 2.294019 64.329674 8388608
3.87485 1.9427658 64.71537 8388608
-5.948524 4.84829 64.213264 8388608
5.0375853 5.1325169 64.771103 8388608
-7.4933271 5.7484279 64.305267 8388608
5.0113211 6.1462498 64.577385 8388608
5.4505091 6.3608704 64.58239 8388608
-14.844425 10.26547 64.267761 8388608
-15.526073 11.188659 63.744385 8388608
-14.151428 10.813212 64.266068 8388608
5.0426226 1.3341612 66.017975 8388608
6.1860824 1.7340285 66.372261 9403928
1.5272129 3.5513382 65.195839 8388608
2.7946486 2.9876735 65.562042 8388608
4.8196487 2.3553448 65.920616 8537352
6.6802158 2.9763732 66.453476 6250586
7.476335 3.1807179 66.480873 4285768
-5.9229293 5.1901393 64.825325 8388608
-4.0979729 5.1530242 65.853386 8388608
-3.5658736 4.7652221 65.746078 8388608
-0.52898848 4.2217135 65.911293 9252382
0.59165955 3.7986672 65.79377 8454400
3.2635818 5.0764418 65.795853 7020065
4.8381753 5.0007463 65.658264 7997202
6.591289 4.2563219 66.314018 5387874
7.4166613 3.6518672 66.501877 2709855
-11.795757 7.1060309 66.015007 8388608
-9.8326979 7.0175219 66.474319 12632192
-7.4865203 5.9709311 65.528824 8388608
-6.176054 6.093142 66.110016 10709575
-4.2244668 7.0002179 65.830826 8454915
-3.419796 6.9088469 65.694984 9512994
-0.72538745 6.385016 65.646461 8126464
0.90451646 5.9929166 65.991791 7408406
2.6964631 5.5315061 65.841675 8257538
5.0632334 6.2766552 65.537521 8257537
5.6215477 5.7192588 66.107437 9259842
-11.774468 8.1737041 65.903809 8388608
-8.3824949 8.0381756 65.983597 8388608
-6.0365343 7.472465 66.016747 8388608
-4.0831242 7.3073573 65.973587 8388608
-3.5575294 7.2952623 66.49485 8421376
-12.189528 9.0950117 65.046707 8388608
4.991374 0.90167892 66.702606 8388608
5.7968554 1.4681039 66.783112 10513056
3.3580904 2.9345739 66.710861 6881315
4.7596025 2.489538 66.716202 3740755
6.5831203 2.7136002 66.665649 3815055
7.4165187 3.0397117 66.637566 4543335
-3.95204 5.1331191 66.766266 8388608
-3.5602732 4.8885784 66.772545 5570624
-0.53632879 4.3691459 66.698112 6770276
0.9905749 4.4681277 66.717972 6955106
2.8368609 4.4797764 66.664139 6764936
4.4856763 3.9519267 66.64135 7818606
5.8081193 3.7042 66.613098 8405120
7.4171224 3.6179709 66.602203 8405120
-11.792147 7.1687222 66.682526 8388608
-9.8315773 7.0427313 66.679581 12632192
-7.6761684 6.1991253 66.678825 8388608
-6.1460075 6.3616719 66.764404 7941225
-4.4288764 6.6301541 66.739334 5450650
-3.5583351 6.2221875 66.698257 4205226
-1.2619982 5.7883368 66.727097 2376795
0.45991206 5.4978852 66.671906 4221808
-11.789362 8.3730679 66.812408 5832761
-8.2608585 8.0930691 66.725662 8388608
-6.6934571 7.7105422 66.615921 8388608
-4.1452518 7.233717 66.614273 8388608
4.2268548 1.7645482 64.644241 8388608
1.4929247 3.4394248 64.679214 8388608
2.6612005 2.2588782 64.188873 8388608
4.0351396 1.8892132 64.536545 8388608
-5.9628134 4.6684546 64.214333 8388608
3.3478162 5.1000609 64.75013 8388608
4.9023213 5.0022979 64.698418 8388608
-7.5368571 5.5857029 64.27494 8388608
4.987277 6.0870481 64.516266 8388608
-14.857767 10.052794 64.30648 8388608
-15.657817 10.950772 63.777786 8388608
5.0263209 1.1666381 65.706711 8390144
5.8514643 1.5865433 66.496468 14777008
1.2072166 3.5037229 65.262939 8388608
2.8886349 2.9470899 65.662773 8388609
4.8067474 2.3627517 65.879082 7814927
6.6161394 2.8299718 66.372467 5000051
7.4045572 3.1472027 66.359726 3629397
-5.958992 4.7776823 64.809998 8388608
-4.0516267 4.8760834 65.62281 8388608
-3.5915856 4.6710434 65.77047 8388865
-0.75263548 4.1215243 65.92141 8919056
0.71121365 4.1614399 66.071487 7345198
3.1323345 4.9769912 65.827438 7349286
4.7986984 4.9284849 65.616905 7867412
6.5442266 4.2633171 66.137741 5388131
7.399498 3.6519639 66.314476 1925717
-11.705746 6.9670315 65.973999 8388608
-7.551919 5.8249669 65.707619 8455427
-6.4032388 6.6101346 65.912971 10510400
-4.1986766 7.0007381 65.847725 8389121
-3.0973189 6.6554332 65.900978 9916463
-0.71442717 6.2514958 65.608421 8192772
0.8293786 5.9116673 65.869286 7407894
2.5116303 5.5165071 65.760864 8192004
5.0294781 6.318881 65.444115 8257537
5.6028337 5.7245951 65.949913 9324869
-11.774014 8.0246964 65.924057 8388608
-7.9049726 7.7336688 66.146881 8388608
-6.5060163 7.371789 65.989052 8388608
-4.0412164 7.2633095 65.946976 8388608
-3.5855672 7.2104783 66.448769 8421376
5.0558367 0.72966838 66.658623 8126469
5.8491011 1.4407707 66.672333 8608146
3.2664437 2.9097135 66.639137 6225969
4.5432916 2.190295 66.644012 2490457
5.8178082 2.0282454 66.62841 6442619
-3.9702673 5.0714111 66.736458 8388608
-3.5780163 4.7960124 66.711151 8388608
-1.1258053 4.2939849 66.724693 6291504
0.85965025 4.3766899 66.641808 7283036
2.3054993 3.7145047 66.634171 192
-11.817682 6.9542966 66.69899 8388608
-7.5008812 5.8466296 66.761497 8388608
-6.7661324 6.6038432 66.798477 7815315
-4.659636 6.6387653 66.694763 3541397
-2.3536944 5.8052626 66.728416 8405120
-1.2277079 5.8196015 66.621689 192
-11.817653 8.1155624 66.822945 8388608
-7.8961883 7.8073087 66.755119 8388608
2.2038031 2.0040765 62.952335 8388608
3.4012978 1.7817771 63.70232 8388608
4.8170033 1.2424922 64.577255 8388608
1.4522862 3.3088849 64.328636 8388608
2.6366138 2.301008 64.078156 8388608
4.2007432 1.9432993 64.438034 8393984
-7.4707079 5.2911887 64.26577 8388608
-6.1578479 4.5090322 63.947906 8388608
-3.6390104 4.5916634 64.782951 8388608
3.068269 5.115458 64.613037 8388608
4.8553381 4.960618 64.507477 8388608
-7.5729051 5.4755874 64.464699 8388608
-0.62672627 6.1799874 64.676819 8388608
1.8467556 5.4523335 64.632225 8388608
4.9639564 6.0920429 64.358727 8388608
3.9761441 7.8741217 63.823418 8388608
-16.241823 10.569694 63.55254 8388608
-14.918929 9.7973766 64.044212 8388608
4.9989567 1.0697205 65.501236 8323072
5.8397737 1.4951788 66.235603 12805541
0.82867664 3.4860375 65.192184 8388608
3.0053942 2.9469156 65.732033 7864591
4.8419294 2.4204905 65.671028 7227418
6.5379133 2.8252168 66.034981 5327733
7.3820548 3.1559651 66.014763 3432791
-7.5496335 5.3429284 65.324066 8388608
-6.3469353 5.2860227 66.286522 8388608
-3.7587023 4.5456142 65.47242 8388865
-3.3115473 4.563386 66.361687 7999773
-0.63919067 4.1717453 65.73822 8923177
0.70438534 4.2283425 66.030617 7479867
3.0097702 4.9594769 65.596359 7218728
4.8705754 4.9259768 65.418083 7872536
6.5665097 4.2081361 65.831841 5387631
7.3790498 3.6475422 65.951042 1859926
-11.55057 6.7892098 65.819633 8388608
-9.4875622 6.4447036 66.322113 12632192
-7.5855465 5.6149421 65.554222 8587782
-5.9117022 6.5589418 65.821518 8597566
-4.0735893 6.7709041 65.644119 8457226
-3.2073081 5.9794064 66.405212 7356554
-0.80436748 6.1133771 65.47464 8126980
0.85536087 5.8017049 65.525276 7931145
2.3934174 5.4755321 65.695282 7602193
5.0416956 6.3514576 65.250153 8326148
5.6734037 5.7790256 65.731201 9645401
-11.669873 7.8369904 65.827354 8388608
-8.44454 7.583992 65.833084 8388608
-6.7886429 7.2648149 66.109566 7536659
-6.3383021 5.3273401 66.614708 8388608
-9.4771729 7.113903 66.78125 8405120
-7.5200877 7.0705762 66.611664 192
-11.835237 7.8325033 66.695152 8388608
-9.4788084 7.3813996 66.747612 8405120
2.9071503 1.7732369 62.942459 8388608
2.3709409 1.9077392 62.821854 8388608
-6.9046679 4.4630065 62.984295 8388608
3.2599118 1.7628324 63.373974 8388608
5.0132413 1.3197949 64.404091 8388608
-5.6955814 3.520448 63.682129 8388608
-0.15564394 3.567924 64.661758 8388608
1.2180508 3.1241932 64.338425 8388608
2.6420109 2.3837879 63.930088 8388608
4.9364057 2.335324 64.563736 8414208
-7.3954549 5.1354809 64.153069 8388608
-5.9261527 4.2814503 63.893665 8388608
-4.00071 4.4590883 64.704208 8388608
-3.2946899 4.0594125 64.691887 8388608
-0.54531789 3.6350222 64.725525 8388608
3.0009339 5.101932 64.451469 8388608
4.8576655 4.9716344 64.319405 8391936
6.8469296 4.2408485 64.739052 8521988
-8.003191 5.4175019 64.737869 8388608
-3.6829813 6.6899195 64.783356 8388608
-0.70277721 6.0173035 64.495491 8388608
0.94810003 5.625947 64.67836 8388608
1.8072656 5.4444075 64.66272 8388608
4.9568567 6.2188478 64.13868 8389632
5.7263503 5.4465899 64.519638 12632192
-15.07951 8.8790522 64.504379 8388608
-16.287884 10.279128 63.821743 8388608
-14.883883 9.6964073 64.259949 8388608
5.0112562 1.106238 65.288086 8257537
5.8277931 1.4954128 65.756836 14183344
-0.1472578 3.5588074 64.84771 8388608
0.76585579 3.4711213 65.422997 7995399
2.9601107 3.0168159 65.51313 7931664
5.0017014 2.5358281 65.388153 7231534
6.6840386 2.87711 65.586365 5392253
7.3408885 3.1586728 65.503883 3433301
-7.5783463 5.313715 65.453934 8388608
-3.8420277 4.4640446 65.518806 8653832
-2.5695713 4.4560308 65.848129 10190966
-0.89888626 4.0915523 65.589401 8262174
0.87361389 4.5609722 65.889458 5191795
3.0244873 4.8312993 65.441269 7023675
4.9641123 4.8628507 65.25827 7024172
6.6274543 4.1452985 65.405869 5323131
7.3381939 3.6510894 65.444756 1923678
-11.511764 6.7419281 65.922302 8388608
-7.5622735 5.5849271 65.809982 8388608
-6.1595459 6.7801185 65.576576 8060941
-4.0188255 6.5532579 65.578751 7867660
-2.8378994 6.0490456 66.113861 4205226
-0.74231505 5.967299 65.412598 7668489
0.85117906 5.7319217 65.329445 7798791
2.2113349 5.4678187 65.539711 8388608
5.0342188 6.3134499 65.106819 7932952
5.7831173 5.7660565 65.300751 11281726
-15.063143 8.8320112 64.867302 8388608
-11.616177 7.689528 65.862679 8388608
-7.9854112 7.2900114 66.000351 8388608
-15.064062 9.0085096 64.846718 8388608
-11.639776 6.9890161 66.790878 6291504
-11.763396 7.6910286 66.769043 6815780
-9.4840641 7.448072 66.716415 192
2.8760281 1.7047369 62.619987 8388608
3.7757123 1.6170927 62.954735 8388608
2.3308091 1.8336229 62.71991 8388608
-6.6227975 4.0690312 62.70224 8388608
4.846889 6.240118 62.905018 8388608
3.9982526 7.5890474 62.540932 8388608
2.9945054 1.7401928 63.187653 8388608
5.0810237 1.2896202 64.094612 8388608
5.7442741 1.7513546 64.435043 12632192
-5.6762404 3.3478768 63.265324 8388608
-0.32994506 3.4444363 64.454582 8388608
1.0089822 3.1702952 64.194969 8388608
2.5930972 2.5737641 63.776775 8389121
5.0698123 2.4204619 64.330826 8680974
6.5372462 2.8434937 64.631989 9858398
7.277123 3.2305071 64.746338 3563608
-7.3155861 4.7574573 63.977676 8388608
-5.7807508 3.9823248 63.498432 8388608
-4.0789948 4.190073 64.385689 8388608
-3.3588459 3.9144783 64.396698 8388608
-1.1774013 3.6397438 64.687904 8388608
0.70534259 4.9169827 64.350151 9781290
2.9766016 5.0105362 64.081062 8389121
4.8873506 4.9272828 63.986084 8132103
6.5261173 4.3076949 64.650742 5260409
7.2772403 3.6555436 64.717171 2441593
-8.0338192 6.7767663 64.79805 8388608
-5.8192768 6.3467469 64.640953 8388608
-3.9345183 6.3171401 64.557266 8388608
-0.66913897 5.791635 64.15654 8388608
0.7838586 5.5560617 64.428246 8388608
4.955966 6.2602301 63.752934 8192773
5.7298574 5.752964 64.599541 11347775
-14.981041 8.5535612 64.18264 8388608
-14.359364 8.8467102 64.150589 8388608
-11.965711 7.5265374 64.737679 8388608
4.491281 7.4957752 63.962627 8388608
-16.359039 9.6740274 63.610352 8388608
-15.094321 9.4998226 63.818542 8388608
-14.378426 9.613307 63.826019 8388608
5.2156458 1.3399427 64.982368 7667716
5.9970469 1.6538726 65.033119 13985971
-0.44763452 3.5234718 65.009476 8388608
0.96440321 3.3797064 65.142952 7670295
2.7902095 3.1074016 65.115578 7347246
4.7879176 2.5830762 65.053871 5648722
6.5986991 2.8503489 64.915924 5655160
7.2836146 3.0846992 64.849464 3828046
-7.3291049 4.9568715 65.46701 8388608
-6.2798557 5.0721574 65.632668 11173973
-3.9173324 4.3959212 65.41011 8127250
-3.2851069 4.0396185 65.263641 8126469
-0.97536755 4.397377 65.386513 6105650
1.0595832 4.9292417 65.295372 4344732
2.7551973 4.5682836 65.07859 6178147
4.7981882 4.3531947 64.933418 4661887
6.3781695 3.9181545 64.837265 7686006
7.2840929 3.6555657 64.814201 44800
-11.512917 6.5295558 65.653671 8257538
-9.5210152 5.8054276 66.076363 12632192
-7.9025369 6.5495477 65.745766 8261447
-6.340673 6.5662317 65.407433 8126474
-4.026041 6.294486 65.312309 7935507
-2.9486039 5.8738203 65.613503 2899627
-0.72570473 5.8252106 65.108864 7602193
0.87012893 5.6099291 65.024048 7536650
1.8092321 5.4151063 65.101204 8388608
-11.513175 7.4700465 65.733643 7667727
-11.443316 6.8391104 66.617645 192
2.7788439 1.4915663 62.229572 8388608
4.6095371 1.3469424 62.753639 8388608
5.4886284 1.2723632 62.970467 8388608
-5.7471404 3.0509071 62.799839 8388608
-5.1805177 2.422353 62.798161 8388608
1.534853 2.6735828 62.913696 8388608
2.6313815 2.2789741 62.830074 8388608
5.0852046 2.0642428 62.907608 8421376
5.48317 2.0749817 62.942104 8421376
-7.5451536 4.0444555 62.858791 8388608
-6.553299 3.7953329 62.908138 8388608
3.2736149 4.6005573 62.817444 8388608
4.935266 4.7399955 62.684464 8388608
5.4773331 5.3834405 62.982651 12632192
4.8511181 6.097466 62.569443 8388608
5.4752622 5.4343729 62.964546 12632192
4.2552133 7.4129095 62.672108 8388608
3.0357754 1.641654 63.09285 8388608
5.0611687 1.3004345 63.741245 7734018
5.6856871 1.4109336 63.610058 9581891
-5.7663794 3.2387164 63.298702 8388608
-3.9065552 3.0002463 63.673973 8388608
-3.4399426 3.346225 64.140991 8388608
-0.65551829 3.101078 64.204239 8388608
0.90896654 2.9282811 64.035339 8391174
2.7967525 2.6344059 63.689983 8129805
4.8330078 2.474977 63.898685 7494186
